-6.02145 0.14540 -1.84018 223 230 235
-5.99102 0.11995 -1.84074 216 226 232
-6.00843 0.14176 -1.84035 219 228 233
-6.01686 0.12705 -1.84042 223 230 234
-6.00049 0.12117 -1.84058 222 230 235
-5.99680 0.11896 -1.84070 223 230 235
-6.01435 0.14057 -1.84021 217 226 233
-6.00411 0.13908 -1.84057 220 228 233
-6.00009 0.13106 -1.84062 224 230 235
-5.98723 0.12772 -1.84111 218 227 234
-5.99325 0.11655 -1.84072 220 229 235
-5.97697 0.11059 -1.84112 218 227 233
-5.98367 0.12531 -1.84113 221 228 233
-6.02652 0.14357 -1.84016 222 230 235
-6.00600 0.12987 -1.84048 215 225 233
-5.98500 0.10577 -1.84122 217 226 233
-5.98165 0.10352 -1.84121 218 227 234
-5.98604 0.12171 -1.84100 211 223 231
-6.00212 0.13771 -1.84061 219 227 233
-6.02297 0.14116 -1.84017 222 230 235
-6.00635 0.13525 -1.84071 220 228 233
-6.03244 0.14238 -1.84001 221 229 234
-6.01942 0.13875 -1.84019 223 230 235
-6.02151 0.15296 -1.84056 216 225 232
-6.00271 0.13290 -1.84049 224 231 236
-6.02750 0.14807 -1.84021 221 227 232
-5.98845 0.12204 -1.84080 217 226 233
-5.97880 0.11708 -1.84114 219 227 233
-6.01558 0.15052 -1.84026 222 229 233
-5.98471 0.11589 -1.84099 216 225 232
-5.98708 0.11229 -1.84086 224 230 234
-6.01915 0.16043 -1.84003 223 230 235
-5.99836 0.13379 -1.84056 215 224 230
-5.98456 0.12988 -1.84094 211 222 231
-6.00941 0.14626 -1.84041 219 227 233
-6.01800 0.15448 -1.84051 221 228 232
-5.98685 0.12998 -1.84102 219 228 234
-6.00131 0.12944 -1.84059 226 232 237
-6.01285 0.13331 -1.84073 224 230 234
-5.97971 0.10609 -1.84118 218 227 234
-5.99676 0.14037 -1.84068 217 226 232
-5.99307 0.13816 -1.84080 218 226 232
-6.01194 0.14025 -1.84041 218 226 233
-6.02250 0.13826 -1.84040 226 233 237
-6.00795 0.15400 -1.84051 217 225 230
-6.01373 0.15302 -1.84047 215 225 232
-5.98952 0.13575 -1.84082 218 227 233
-6.01430 0.13664 -1.84028 223 229 234
-6.01017 0.15060 -1.84049 213 221 227
-6.02669 0.14115 -1.84029 221 229 234
-6.02322 0.13867 -1.84054 222 230 235
-6.01091 0.13452 -1.84061 225 231 236
-6.02905 0.13755 -1.84016 223 230 234
-6.01979 0.13649 -1.84029 227 233 236
-5.99656 0.12508 -1.84078 222 230 235
-5.99537 0.11907 -1.84066 220 229 235
-6.00308 0.13065 -1.84059 221 229 235
-5.97875 0.11315 -1.84120 216 226 232
-6.00909 0.12939 -1.84068 222 230 235
-6.02202 0.13309 -1.84026 223 229 234
-6.02529 0.13769 -1.84039 218 227 233
-6.00858 0.13185 -1.84069 219 228 234
-5.97541 0.11090 -1.84119 222 229 234
-6.02173 0.13528 -1.84041 224 231 236
-6.01449 0.13066 -1.84055 218 225 230
-6.00553 0.12698 -1.84070 222 229 235
-5.97786 0.10723 -1.84130 215 225 233
-5.98476 0.11983 -1.84093 212 222 229
-6.01115 0.12840 -1.84053 220 228 233
-5.98698 0.10849 -1.84128 220 228 234
-6.02410 0.13168 -1.84028 224 230 235
-6.00739 0.12583 -1.84058 224 230 234
-5.98000 0.10390 -1.84104 215 225 232
-6.00620 0.14923 -1.84066 219 227 233
-6.00492 0.14328 -1.84030 223 230 234
-6.00146 0.14080 -1.84056 222 230 234
-6.01330 0.12464 -1.84043 222 229 235
-5.99896 0.14461 -1.84080 218 226 232
-6.00790 0.12337 -1.84057 222 229 234
-5.99554 0.14199 -1.84071 216 225 232
-6.01251 0.15328 -1.84040 217 226 232
-5.98576 0.10876 -1.84121 219 228 233
-5.98922 0.12638 -1.84089 219 228 233
-5.99777 0.13859 -1.84068 216 225 232
-6.02040 0.14325 -1.84024 219 227 233
-6.00724 0.13982 -1.84052 219 227 232
-6.01315 0.13863 -1.84038 218 227 234
-6.00969 0.13614 -1.84064 224 230 235
-5.99953 0.12823 -1.84060 222 229 234
-6.00614 0.13373 -1.84065 221 229 234
-5.99238 0.12354 -1.84098 219 227 233
-6.01552 0.13502 -1.84025 223 229 234
-6.01332 0.16155 -1.84042 215 224 230
-6.01192 0.13274 -1.84061 224 231 235
-6.00198 0.12456 -1.84071 222 229 234
-5.99855 0.12238 -1.84046 220 228 234
-5.98548 0.11888 -1.84098 215 224 230
-5.99140 0.11769 -1.84084 219 228 234
-5.97857 0.10401 -1.84100 219 227 233
-5.98414 0.12820 -1.84091 208 221 230
-5.98193 0.11647 -1.84100 218 227 232
-6.01919 0.12973 -1.84033 224 231 235
-6.02609 0.13440 -1.84033 219 227 233
-6.02108 0.14766 -1.84008 219 227 233
-6.01312 0.14626 -1.84052 218 226 231
-5.98998 0.12936 -1.84087 219 228 233
-5.98089 0.12588 -1.84113 204 218 229
-5.98629 0.12715 -1.84100 220 229 234
-5.99937 0.13065 -1.84047 222 229 234
-5.98866 0.12355 -1.84087 222 230 235
-6.00421 0.12116 -1.84069 219 228 234
-6.00066 0.11875 -1.84071 222 229 234
-5.98429 0.11287 -1.84087 215 225 231
-5.99710 0.11634 -1.84072 216 226 233
-6.00884 0.15857 -1.84032 214 224 230
-6.01707 0.15391 -1.84039 221 227 232
-5.99917 0.14206 -1.84058 213 223 230
-6.01464 0.14202 -1.84051 213 223 231
-6.00530 0.14103 -1.84040 219 228 233
-6.02056 0.14083 -1.84037 221 229 234
-6.02657 0.13957 -1.84047 224 231 235
-6.01346 0.13601 -1.84040 221 228 233
-6.01924 0.13502 -1.84036 226 232 236
-5.99918 0.12692 -1.84065 224 231 235
-5.98985 0.12550 -1.84070 223 230 234
-6.02879 0.13617 -1.84044 223 230 235
-6.02524 0.13376 -1.84046 221 229 234
-6.00519 0.12566 -1.84074 221 228 233
-6.00155 0.12332 -1.84052 220 229 234
-5.99376 0.11409 -1.84071 220 228 234
-5.99021 0.11168 -1.84072 220 228 234
-6.01174 0.15030 -1.84042 220 227 232
-6.00805 0.14809 -1.84054 220 228 233
-5.97977 0.12158 -1.84119 216 225 231
-6.01397 0.14690 -1.84039 217 225 232
-5.99405 0.13860 -1.84057 220 227 232
-6.01407 0.15433 -1.84043 219 227 233
-6.01988 0.14571 -1.84025 219 228 234
-6.02580 0.14452 -1.84010 223 230 235
-5.99637 0.13513 -1.84079 217 225 232
-6.03417 0.13966 -1.84007 224 231 234
-6.00444 0.13018 -1.84055 217 226 233
-5.98438 0.12208 -1.84083 218 227 232
-6.01399 0.13133 -1.84063 217 226 231
-5.98092 0.11960 -1.84109 214 224 231
-5.99039 0.12082 -1.84093 216 225 232
-5.98684 0.11841 -1.84094 216 225 232
-5.99631 0.11963 -1.84078 223 230 235
-5.99275 0.11722 -1.84080 216 226 233
-5.97625 0.11154 -1.84106 218 227 233
-6.00222 0.11844 -1.84064 216 226 233
-5.99498 0.11382 -1.84077 218 227 234
-5.97871 0.10787 -1.84118 214 224 232
-5.99480 0.13544 -1.84086 215 225 231
-6.01856 0.13061 -1.84052 221 228 233
-6.02571 0.13530 -1.84014 217 225 232
-6.02320 0.15424 -1.84031 220 228 234
-5.99533 0.11513 -1.84073 210 222 231
-5.98449 0.10688 -1.84114 217 226 232
-5.97502 0.10566 -1.84130 214 225 233
-5.98093 0.10447 -1.84115 216 226 233
-6.01728 0.15543 -1.84046 217 225 231
-5.99060 0.12234 -1.84099 217 226 232
-6.02006 0.15350 -1.84036 219 228 234
-6.01492 0.15497 -1.84030 218 227 232
-6.01737 0.15923 -1.84004 219 227 233
-6.01847 0.15738 -1.84029 214 223 230
-6.00564 0.14234 -1.84036 223 230 234
-6.01445 0.15207 -1.84053 217 226 232
-6.01831 0.15979 -1.84016 224 231 235
-6.00709 0.15515 -1.84056 215 224 230
-6.01485 0.14353 -1.84058 212 222 230
-5.99583 0.13980 -1.84056 216 225 232
-6.01811 0.14450 -1.84026 217 226 232
-5.99223 0.13753 -1.84093 213 223 230
-5.99572 0.12444 -1.84090 220 228 234
-5.99453 0.11843 -1.84079 216 226 233
-5.97435 0.11010 -1.84134 219 227 234
-6.01130 0.14112 -1.84059 218 227 233
-5.98769 0.13061 -1.84089 213 224 231
-6.02708 0.14640 -1.84018 220 228 234
-6.02940 0.14293 -1.84040 226 232 236
-6.03038 0.14336 -1.84016 224 231 235
-5.99716 0.13184 -1.84073 220 228 234
-6.02825 0.14085 -1.84022 223 230 235
-6.02821 0.13691 -1.84028 223 230 235
-6.00641 0.15074 -1.84072 216 226 232
-6.00286 0.14833 -1.84074 223 230 235
-6.00877 0.14714 -1.84059 219 227 233
-6.01895 0.13585 -1.84041 225 231 235
-6.00921 0.15631 -1.84042 211 221 229
-6.00663 0.13306 -1.84057 222 229 234
-6.01114 0.14354 -1.84046 219 227 232
-5.99006 0.12701 -1.84076 219 227 233
-6.00758 0.14113 -1.84048 220 227 233
-6.00272 0.14311 -1.84047 220 228 233
-5.98012 0.12290 -1.84115 216 226 232
-6.01793 0.16205 -1.84006 208 220 229
-6.00981 0.13773 -1.84046 221 229 234
-5.99772 0.13466 -1.84075 215 225 232
-5.99581 0.12824 -1.84049 221 229 234
-6.00996 0.12239 -1.84042 218 227 234
-5.98733 0.11774 -1.84086 220 227 233
-6.00636 0.12011 -1.84078 220 229 235
-5.98378 0.11533 -1.84088 213 224 232
-5.98979 0.11407 -1.84097 222 230 235
-5.99869 0.12760 -1.84073 224 231 235
-5.98623 0.11166 -1.84099 221 227 232
-6.03261 0.13996 -1.84014 223 230 234
-5.99215 0.11047 -1.84084 219 228 234
-5.99296 0.11874 -1.84086 216 226 233
-6.02035 0.13932 -1.84031 225 232 236
-5.98855 0.10819 -1.84121 222 229 234
-6.02858 0.13466 -1.84038 223 230 234
-6.02457 0.13864 -1.84034 219 227 233
-6.02214 0.15209 -1.84037 217 226 231
-6.02101 0.13622 -1.84035 228 234 237
-6.00829 0.13268 -1.84074 222 230 234
-6.01709 0.16141 -1.84019 211 223 231
-6.01097 0.14731 -1.84043 219 227 232
-5.99200 0.12445 -1.84079 223 230 235
-6.00650 0.15454 -1.84031 214 223 229
-6.00171 0.14625 -1.84056 216 224 230
-6.02399 0.15094 -1.84025 216 225 231
-6.00612 0.12217 -1.84058 220 229 235
-6.02035 0.14860 -1.84003 219 228 234
-6.00882 0.15107 -1.84053 215 224 229
-6.00763 0.14506 -1.84041 222 230 235
-6.02487 0.13466 -1.84027 220 228 233
-6.02442 0.14855 -1.84000 217 226 232
-6.02118 0.13245 -1.84039 222 229 234
-6.00460 0.12641 -1.84058 222 229 234
-6.02073 0.14634 -1.84013 217 226 233
-6.01248 0.16091 -1.84055 220 227 233
-6.00760 0.15269 -1.84055 216 224 230
-6.01352 0.15150 -1.84041 216 225 232
-6.03003 0.14205 -1.84021 225 232 236
-6.01589 0.13277 -1.84035 221 227 231
-6.02160 0.13142 -1.84023 220 228 234
-6.01479 0.12668 -1.84047 223 230 235
-6.00779 0.14264 -1.84054 221 229 234
-6.01124 0.12427 -1.84049 218 227 233
-6.00755 0.12206 -1.84061 222 230 235
-5.98659 0.12453 -1.84102 221 229 235
-6.00408 0.14265 -1.84043 220 228 233
-6.00365 0.11834 -1.84067 219 227 233
-6.00734 0.12055 -1.84055 219 228 234
-6.01089 0.12296 -1.84053 218 227 234
-6.00105 0.12400 -1.84060 221 228 233
-5.98108 0.11583 -1.84112 217 226 232
-5.97981 0.11395 -1.84105 221 228 233
-6.01094 0.15359 -1.84048 216 225 231
-5.97932 0.10085 -1.84129 221 228 232
-6.01449 0.15600 -1.84046 220 228 233
-6.01810 0.15828 -1.84010 216 225 231
-6.00697 0.12281 -1.84045 221 229 235
-6.01081 0.14973 -1.84030 215 224 230
-5.98345 0.11223 -1.84099 213 223 230
-5.98923 0.11124 -1.84095 218 227 233
-6.02628 0.14969 -1.84024 224 230 233
-5.98221 0.10635 -1.84123 216 226 233
-6.01027 0.15847 -1.84036 209 221 230
-5.99816 0.14384 -1.84057 216 225 232
-6.00227 0.12238 -1.84057 219 228 233
-6.01353 0.16307 -1.84048 210 220 227
-6.01581 0.15953 -1.84011 219 228 234
-5.97819 0.11033 -1.84119 216 225 232
-6.00164 0.14995 -1.84077 213 223 230
-6.00421 0.14651 -1.84060 222 229 234
-6.00052 0.14430 -1.84073 218 226 231
-5.99697 0.14189 -1.84074 216 225 232
-6.01591 0.14433 -1.84042 207 220 229
-6.01236 0.14192 -1.84044 219 227 233
-6.02886 0.14760 -1.84017 223 230 234
-6.02530 0.14519 -1.84019 223 231 235
-5.99218 0.13359 -1.84099 214 224 231
-6.01827 0.14073 -1.84029 223 230 234
-5.98863 0.13118 -1.84101 213 224 231
-5.98152 0.12636 -1.84104 208 221 230
-5.99099 0.12758 -1.84088 219 227 233
-5.99461 0.14142 -1.84059 216 225 232
-6.00587 0.15542 -1.84050 220 228 233
-6.00039 0.14044 -1.84055 216 225 232
-6.00445 0.14039 -1.84053 218 227 233
-6.01263 0.15486 -1.84023 219 227 232
-6.00090 0.13798 -1.84054 216 226 232
-6.00284 0.13677 -1.84066 218 227 232
-5.99598 0.12582 -1.84062 226 232 236
-5.98312 0.12248 -1.84111 215 225 231
-6.01823 0.13680 -1.84036 223 229 234
-6.01374 0.16458 -1.84055 213 222 229
-5.97473 0.10785 -1.84144 214 225 232
-6.01699 0.13092 -1.84059 222 228 231
-6.03071 0.13717 -1.84033 222 229 234
-5.98882 0.12113 -1.84100 215 225 232
-5.97935 0.11991 -1.84116 215 226 232
-6.02318 0.14267 -1.84024 222 230 235
-6.02758 0.14572 -1.84010 220 228 234
-6.00647 0.13683 -1.84054 222 229 234
-6.00313 0.13458 -1.84052 222 230 235
-5.97601 0.11766 -1.84114 220 228 233
-6.01139 0.14898 -1.84046 218 226 231
-6.01731 0.14779 -1.84032 216 226 233
-6.00463 0.14954 -1.84073 218 226 233
-6.02559 0.14300 -1.84004 217 226 233
-6.01857 0.13811 -1.84031 221 229 234
-6.02436 0.13712 -1.84028 217 226 233
-6.02080 0.13471 -1.84029 223 231 236
-6.01365 0.13002 -1.84067 217 226 232
-6.02346 0.13255 -1.84047 222 229 234
-6.02317 0.13111 -1.84016 220 228 233
-6.00667 0.12542 -1.84043 224 230 235
-6.01065 0.12908 -1.84061 225 231 235
-6.01246 0.12401 -1.84056 218 227 233
-6.00891 0.12159 -1.84057 220 229 235
-6.01061 0.15978 -1.84031 214 224 232
-6.01129 0.12956 -1.84052 222 230 235
-5.98763 0.11512 -1.84088 216 224 230
-6.00688 0.12694 -1.84049 224 231 235
-5.99361 0.12942 -1.84075 224 231 235
-6.01653 0.15859 -1.84017 218 227 233
-5.99872 0.11996 -1.84059 223 230 235
-5.99858 0.14686 -1.84070 221 228 233
-6.00450 0.14567 -1.84056 219 227 233
-5.99503 0.11775 -1.84071 223 231 235
-5.99354 0.13177 -1.84086 213 224 232
-5.97854 0.11164 -1.84114 220 228 233
-6.01552 0.16172 -1.84026 217 226 233
-6.01382 0.16088 -1.84034 220 227 232
-6.00671 0.15605 -1.84037 218 226 232
-6.01987 0.15949 -1.84009 221 228 232
-5.99366 0.13336 -1.84068 211 223 232
-6.00352 0.13982 -1.84041 220 228 234
-6.02615 0.14583 -1.84006 223 230 236
-6.02846 0.14236 -1.84028 223 231 235
-6.02500 0.13988 -1.84054 219 228 234
-6.02136 0.13754 -1.84031 227 233 237
-6.01331 0.14999 -1.84035 220 227 233
-6.02736 0.13628 -1.84041 223 230 235
-5.97718 0.11211 -1.84118 216 225 231
-6.01678 0.12940 -1.84053 222 228 233
-6.01606 0.15705 -1.84048 217 226 232
-6.00192 0.14776 -1.84062 221 228 233
-5.98962 0.11648 -1.84084 224 230 235
-6.01601 0.15176 -1.84046 220 228 233
-6.01385 0.14531 -1.84057 213 220 226
-6.01967 0.14419 -1.84019 216 225 232
-5.98669 0.13239 -1.84089 210 221 230
-6.01350 0.13994 -1.84033 219 227 234
-6.01587 0.13634 -1.84020 225 231 236
-5.97955 0.10851 -1.84105 212 223 231
-6.03120 0.13650 -1.84025 222 229 234
-6.01621 0.14171 -1.84044 215 225 232
-6.02213 0.14052 -1.84030 223 230 235
-5.99260 0.13120 -1.84074 217 227 233
-5.99490 0.11617 -1.84089 214 225 233
-6.02279 0.13743 -1.84035 226 232 236
-5.99813 0.12477 -1.84071 222 230 235
-6.00405 0.12358 -1.84056 222 229 234
-6.03160 0.14174 -1.84014 219 227 232
-6.02791 0.13953 -1.84026 226 232 235
-5.98190 0.12410 -1.84114 211 221 229
-6.00423 0.12866 -1.84048 220 228 234
-6.01302 0.12548 -1.84048 223 230 235
-6.02982 0.14054 -1.84015 224 231 235
-6.03382 0.13834 -1.84012 225 231 235
-6.03036 0.13586 -1.84037 224 231 235
-6.01622 0.12658 -1.84051 224 230 234
-5.99233 0.11961 -1.84105 215 225 232
-6.01991 0.13014 -1.84048 222 229 234
-5.98607 0.11407 -1.84086 220 228 233
-6.01636 0.12773 -1.84050 225 231 235
-5.99221 0.12596 -1.84085 221 229 234
-6.01814 0.12894 -1.84049 224 231 235
-6.00879 0.12794 -1.84038 219 228 234
-6.00287 0.12913 -1.84052 224 231 236
-6.01243 0.13028 -1.84060 220 228 234
-6.00642 0.13154 -1.84051 223 230 235
-6.02403 0.14331 -1.84011 220 230 235
-6.03248 0.13838 -1.84032 224 231 234
-6.02258 0.13592 -1.84028 222 231 236
-6.01297 0.16024 -1.84047 222 229 233
-6.00818 0.15195 -1.84072 217 225 230
-6.01415 0.15063 -1.84022 217 226 232
-5.99744 0.14478 -1.84052 214 223 229
-6.00540 0.12311 -1.84052 222 229 235
-6.00304 0.12672 -1.84065 219 227 233
-6.01903 0.13350 -1.84030 224 231 235
-5.98712 0.11622 -1.84080 213 221 227
-6.03214 0.13707 -1.84037 222 229 234
-5.99373 0.12172 -1.84085 212 222 229
-6.01758 0.16074 -1.84011 214 225 232
-6.00272 0.11777 -1.84056 217 226 233
-6.02148 0.12983 -1.84041 221 229 235
-5.98249 0.11929 -1.84102 210 221 230
-5.99926 0.11529 -1.84081 207 220 230
-5.99570 0.11288 -1.84083 222 230 235
-5.99004 0.11951 -1.84097 216 226 233
-5.98071 0.11809 -1.84102 220 227 232
-6.01883 0.14355 -1.84031 218 227 233
-5.99641 0.13906 -1.84072 213 223 230
-5.97595 0.10623 -1.84142 214 224 232
-6.01049 0.13285 -1.84058 222 230 235
-6.01626 0.14564 -1.84038 217 226 232
-6.00566 0.15390 -1.84043 218 227 232
-6.00320 0.12294 -1.84069 221 229 234
-6.01255 0.15857 -1.84043 215 226 233
-6.00784 0.14657 -1.84048 221 229 234
-6.00429 0.14416 -1.84049 222 229 234
-5.99965 0.12053 -1.84070 220 228 234
-5.98649 0.11710 -1.84099 216 225 231
-5.99596 0.11832 -1.84082 223 231 235
-5.99241 0.11591 -1.84084 222 230 235
-6.00073 0.14175 -1.84051 220 228 233
-6.00543 0.11954 -1.84066 220 228 234
-6.00188 0.11713 -1.84068 220 228 232
-5.97938 0.11228 -1.84102 220 228 233
-5.98885 0.11350 -1.84086 221 229 234
-6.01153 0.12344 -1.84044 218 227 233
-5.99720 0.12420 -1.84059 222 230 235
-5.98539 0.11102 -1.84111 221 228 233
-6.00305 0.13828 -1.84073 218 227 232
-6.00665 0.14056 -1.84036 221 228 233
-6.02336 0.14640 -1.84006 221 228 233
-6.00916 0.15238 -1.84048 218 226 231
-5.99358 0.13706 -1.84089 211 222 229
-5.99941 0.13594 -1.84050 218 227 232
-5.99832 0.11472 -1.84070 210 222 231
-5.99477 0.11231 -1.84071 222 230 236
-6.00671 0.12142 -1.84074 220 229 235
-6.02455 0.15242 -1.84018 216 225 232
-6.02914 0.14541 -1.84003 226 233 236
-5.99595 0.13346 -1.84076 219 227 233
-6.01969 0.15576 -1.84026 221 229 233
-6.00563 0.13484 -1.84057 222 228 232
-5.98891 0.12899 -1.84086 219 227 233
-6.00186 0.13227 -1.84061 222 230 235
-5.98545 0.12651 -1.84112 219 228 234
-5.99519 0.14068 -1.84075 217 226 232
-5.99852 0.13001 -1.84060 220 229 234
-5.99137 0.12532 -1.84098 226 232 236
-5.97821 0.12189 -1.84126 217 226 232
-5.99196 0.12052 -1.84085 215 225 231
-5.98781 0.12291 -1.84099 218 227 234
-5.98417 0.12057 -1.84077 210 222 230
-5.97702 0.11588 -1.84115 218 227 232
-6.01433 0.15977 -1.84043 217 226 232
-5.99164 0.13827 -1.84077 214 224 231
-6.00116 0.14342 -1.84054 218 226 231
-6.01234 0.15705 -1.84037 219 227 233
-6.00879 0.15464 -1.84039 218 226 231
-5.99748 0.14078 -1.84083 214 225 232
-6.02162 0.14298 -1.84031 224 231 235
-6.00880 0.13951 -1.84045 218 227 233
-6.03122 0.14400 -1.84004 224 231 236
-6.00170 0.13468 -1.84048 218 227 233
-6.02762 0.14172 -1.84040 221 229 235
-6.02407 0.13931 -1.84042 214 224 232
-6.03020 0.13828 -1.84024 222 229 234
-6.02073 0.13706 -1.84040 227 233 237
-6.00401 0.13121 -1.84070 215 225 232
-6.01002 0.12996 -1.84080 222 230 234
-6.02274 0.13350 -1.84041 221 229 234
-6.00638 0.12761 -1.84057 222 230 235
-6.00459 0.11891 -1.84079 220 228 234
-6.00874 0.12401 -1.84044 222 230 235
-5.99810 0.13240 -1.84085 215 224 230
-5.99446 0.13006 -1.84062 222 229 234
-5.98744 0.12517 -1.84089 222 230 235
-6.00046 0.12880 -1.84072 227 232 236
-5.99691 0.12639 -1.84073 223 230 235
-5.98967 0.12177 -1.84087 216 226 233
-6.00283 0.12520 -1.84059 222 229 234
-5.99927 0.12279 -1.84060 220 228 234
-6.00356 0.13582 -1.84072 219 227 233
-6.01785 0.13906 -1.84026 221 229 234
-6.01662 0.13317 -1.84049 222 228 232
-6.01564 0.12732 -1.84035 225 231 235
-6.00933 0.12327 -1.84060 223 230 235
-6.01526 0.13364 -1.84053 222 229 233
-5.97559 0.12005 -1.84139 217 226 232
-5.99161 0.11920 -1.84090 215 226 233
-6.01642 0.14323 -1.84051 211 222 229
-6.01868 0.13219 -1.84034 223 229 233
-6.01260 0.16250 -1.84037 216 225 230
-5.99045 0.13632 -1.84093 218 227 233
-5.99736 0.12179 -1.84072 224 231 235
-6.01496 0.15890 -1.84024 218 228 234
-6.02935 0.14693 -1.84009 225 232 235
-6.01278 0.14088 -1.84028 218 226 232
-5.98542 0.10745 -1.84125 218 227 233
-5.98187 0.10504 -1.84127 216 226 233
-5.97440 0.11404 -1.84128 216 225 232
-5.98011 0.11133 -1.84107 217 224 229
-6.00368 0.13740 -1.84054 219 227 232
-6.01794 0.14692 -1.84013 215 225 232
-6.02505 0.15174 -1.84010 219 227 233
-5.99411 0.11946 -1.84095 218 227 234
-5.97739 0.11362 -1.84124 211 222 231
-6.01319 0.15769 -1.84025 218 227 233
-5.98926 0.13031 -1.84082 213 224 231
-5.99163 0.12670 -1.84069 220 228 233
-6.01141 0.15648 -1.84025 216 225 231
-6.03053 0.14138 -1.84013 222 229 234
-5.97831 0.10262 -1.84129 217 226 231
-6.02088 0.15771 -1.84009 218 226 231
-6.01764 0.13754 -1.84020 221 229 234
-6.01996 0.13407 -1.84042 224 230 235
-6.00426 0.15179 -1.84063 223 230 234
-6.01641 0.13166 -1.84043 222 227 230
-5.99426 0.14011 -1.84063 219 227 232
-5.99080 0.13763 -1.84089 216 226 232
-5.99337 0.13554 -1.84082 215 224 230
-5.99671 0.13644 -1.84075 209 221 230
-6.00618 0.13766 -1.84059 221 229 233
-6.02232 0.13047 -1.84029 219 227 233
-5.98245 0.12693 -1.84116 210 222 230
-6.01508 0.12585 -1.84042 225 231 235
-6.01781 0.13512 -1.84033 222 229 234
-6.00370 0.14897 -1.84061 221 229 234
-6.01090 0.15759 -1.84017 212 223 230
-6.01656 0.15637 -1.84040 220 228 233
-6.01335 0.15392 -1.84028 218 226 233
-6.01203 0.14811 -1.84027 219 226 232
-6.02640 0.14199 -1.84034 218 227 233
-6.02271 0.13978 -1.84046 220 228 234
-6.01907 0.13744 -1.84023 226 232 236
-6.02863 0.13859 -1.84031 223 230 234
-6.02152 0.13376 -1.84035 221 229 234
-6.00837 0.13033 -1.84063 220 229 234
-6.01437 0.12907 -1.84073 221 229 234
-6.02381 0.13387 -1.84042 223 230 235
-6.02033 0.13181 -1.84051 220 228 233
-6.00718 0.12432 -1.84051 224 231 235
-6.02256 0.15105 -1.84022 222 229 233
-6.01922 0.14880 -1.84020 222 230 235
-6.00606 0.14537 -1.84048 222 230 235
-5.99896 0.14054 -1.84052 215 225 231
-5.97758 0.11870 -1.84116 219 227 233
-5.99792 0.12326 -1.84064 226 232 236
-5.99445 0.12078 -1.84090 216 225 232
-5.98121 0.11741 -1.84094 221 229 233
-6.00362 0.12191 -1.84053 221 229 234
-5.99076 0.11857 -1.84102 218 227 234
-5.99994 0.11970 -1.84065 222 230 235
-5.99668 0.11738 -1.84088 222 230 235
-5.98366 0.11374 -1.84105 214 224 232
-5.99313 0.11496 -1.84089 221 229 235
-5.98958 0.11255 -1.84091 219 228 234
-6.00483 0.13949 -1.84072 222 229 233
-6.01323 0.12699 -1.84055 223 230 235
-6.00012 0.12343 -1.84048 221 228 234
-6.01445 0.12537 -1.84052 224 231 235
-5.99418 0.11712 -1.84083 216 226 233
-6.01022 0.15454 -1.84042 216 225 232
-5.99655 0.11351 -1.84070 213 225 233
-5.98133 0.10971 -1.84104 214 223 230
-6.00119 0.13714 -1.84049 216 226 232
-6.01327 0.13092 -1.84048 218 227 233
-6.00135 0.13337 -1.84053 221 228 234
-6.00268 0.13918 -1.84053 222 230 234
-6.00623 0.14159 -1.84052 222 229 234
-6.02273 0.14728 -1.84025 221 229 234
-6.02028 0.15095 -1.84014 224 230 234
-6.03087 0.14269 -1.84008 222 230 234
-6.02378 0.15349 -1.84047 221 228 233
-6.00966 0.15171 -1.84040 216 223 229
-6.00667 0.15212 -1.84044 216 225 231
-6.02390 0.14173 -1.84029 216 225 233
-6.01057 0.15585 -1.84038 217 225 231
-6.00364 0.13347 -1.84060 220 229 235
-6.00964 0.13221 -1.84070 221 229 235
-6.01187 0.12881 -1.84068 219 227 233
-6.00091 0.14954 -1.84062 210 221 228
-5.99652 0.12115 -1.84084 224 231 235
-6.02004 0.15707 -1.84022 216 225 230
-6.00354 0.15139 -1.84048 221 228 233
-6.00599 0.14771 -1.84060 221 229 234
-6.01880 0.15119 -1.84045 222 230 234
-6.01516 0.14885 -1.84023 218 227 233
-6.01169 0.14636 -1.84048 222 229 233
-5.99083 0.13000 -1.84075 217 226 233
-5.97761 0.11107 -1.84102 220 227 233
-5.97992 0.10760 -1.84124 210 222 231
-5.98939 0.10882 -1.84108 220 228 233
-5.97658 0.10535 -1.84123 218 227 233
-6.00822 0.14431 -1.84057 220 229 234
-5.98584 0.10641 -1.84110 219 227 232
-5.98250 0.10416 -1.84108 218 227 234
-5.99396 0.13480 -1.84099 213 223 230
-6.00703 0.13830 -1.84046 221 228 233
-5.99040 0.13239 -1.84100 217 225 232
-5.97895 0.10175 -1.84110 218 226 232
-6.01629 0.13936 -1.84033 216 226 232
-6.01294 0.13711 -1.84032 220 228 234
-5.99987 0.13361 -1.84084 219 226 230
-5.99623 0.13127 -1.84061 223 230 235
-6.00662 0.14819 -1.84050 222 230 234
-6.00376 0.12577 -1.84071 221 229 234
-5.98330 0.12757 -1.84103 207 219 229
-6.00948 0.13463 -1.84057 221 229 234
-6.00579 0.13242 -1.84070 217 226 233
-6.01102 0.15124 -1.84036 219 226 230
-5.99268 0.12886 -1.84063 220 229 234
-6.01693 0.15005 -1.84022 221 229 234
-6.00755 0.14876 -1.84062 219 227 233
-6.01338 0.14764 -1.84023 219 227 232
-5.99342 0.13948 -1.84076 221 229 233
-6.00224 0.13001 -1.84071 225 232 236
-6.01930 0.14645 -1.84009 220 228 234
-6.00298 0.14991 -1.84056 219 227 233
-5.99564 0.13608 -1.84074 210 221 230
-6.00525 0.13710 -1.84047 224 230 234
-6.00757 0.13363 -1.84069 222 229 234
-6.03354 0.14053 -1.84026 224 231 234
-5.98389 0.12276 -1.84091 212 223 231
-5.98566 0.12396 -1.84090 217 227 233
-6.01230 0.12642 -1.84043 221 229 234
-5.99558 0.12058 -1.84073 223 230 235
-5.98633 0.11952 -1.84086 216 225 232
-5.99212 0.11810 -1.84098 215 226 233
-5.97562 0.11242 -1.84125 214 224 232
-6.00150 0.11939 -1.84058 223 230 235
-5.99804 0.11691 -1.84084 217 226 233
-5.99448 0.11450 -1.84085 215 225 233
-5.97798 0.10881 -1.84112 216 225 232
-5.97438 0.10653 -1.84149 213 224 232
-5.97646 0.11305 -1.84113 210 222 230
-5.98399 0.10755 -1.84122 214 224 231
-5.99513 0.12519 -1.84074 219 228 234
-5.98206 0.12168 -1.84127 216 226 232
-6.02673 0.14508 -1.84022 223 230 235
-5.99144 0.12298 -1.84086 217 226 233
-6.02550 0.13920 -1.84046 224 232 236
-5.98810 0.12072 -1.84085 210 222 230
-6.01344 0.12851 -1.84061 222 229 234
-6.00752 0.12970 -1.84075 219 228 234
-6.00243 0.11996 -1.84070 221 229 234
-5.97872 0.11943 -1.84125 220 228 233
-5.97517 0.11702 -1.84127 219 227 233
-6.01454 0.16129 -1.84049 221 228 233
-6.01934 0.14245 -1.84040 221 229 234
-6.02281 0.14493 -1.84014 223 230 235
-6.01120 0.15903 -1.84047 212 223 230
-6.00764 0.15662 -1.84049 215 225 231
-5.99047 0.11712 -1.84072 223 230 236
-5.98691 0.11471 -1.84073 221 229 233
-6.01006 0.15695 -1.84029 211 222 229
-6.01361 0.15936 -1.84028 213 224 232
-6.01458 0.16522 -1.84042 209 221 229
-6.02194 0.13679 -1.84047 227 234 237
-6.02786 0.13560 -1.84033 222 230 235
-6.00912 0.14845 -1.84055 219 227 232
-6.01741 0.12853 -1.84034 222 229 234
-6.01052 0.12522 -1.84044 216 226 233
-6.01407 0.12763 -1.84042 224 231 235
-5.98664 0.12846 -1.84095 221 229 235
-6.01762 0.13004 -1.84041 220 227 232
-6.00816 0.12882 -1.84057 219 227 234
-6.02584 0.14052 -1.84041 223 230 235
-6.00537 0.13075 -1.84066 217 227 234
-6.01984 0.14178 -1.84032 222 230 235
-6.01624 0.16078 -1.84031 215 224 231
-5.99756 0.13708 -1.84062 214 224 231
-5.98295 0.12625 -1.84108 217 226 232
-6.01144 0.15291 -1.84040 219 227 233
-6.02339 0.14419 -1.84030 224 232 236
-6.01760 0.14561 -1.84017 214 225 232
-6.00103 0.11649 -1.84080 223 230 235
-6.03019 0.13963 -1.84034 223 230 235
-6.02330 0.13497 -1.84034 220 228 235
-5.99834 0.12628 -1.84077 221 230 235
-5.98532 0.12265 -1.84095 214 225 232
-5.98247 0.11179 -1.84122 210 219 226
-6.03176 0.13933 -1.84027 222 229 234
-6.00010 0.11593 -1.84069 217 226 233
-5.98809 0.11051 -1.84087 218 227 233
-6.00328 0.14594 -1.84049 217 226 232
-5.98768 0.11905 -1.84082 214 224 232
-5.98413 0.11664 -1.84083 214 224 231
-6.00256 0.14689 -1.84043 217 225 231
-6.01162 0.15800 -1.84032 218 227 233
-5.98310 0.11092 -1.84104 211 220 227
-6.01775 0.15697 -1.84014 220 227 232
-6.00722 0.12825 -1.84045 219 228 234
-5.98801 0.11286 -1.84098 222 229 234
-6.02235 0.15360 -1.84044 219 227 233
-5.97494 0.10936 -1.84151 213 224 232
-5.99930 0.14592 -1.84075 220 227 232
-6.00856 0.14563 -1.84053 221 229 234
-6.02133 0.14381 -1.84036 223 230 235
-6.02703 0.14247 -1.84024 222 230 235
-6.02356 0.14042 -1.84034 216 225 232
-6.02000 0.13800 -1.84035 226 232 236
-5.99280 0.12115 -1.84073 210 220 228
-6.01284 0.15638 -1.84029 218 226 232
-6.00582 0.15149 -1.84056 219 227 233
-6.00707 0.14223 -1.84039 222 229 234
-6.02947 0.13923 -1.84019 222 230 234
-5.97973 0.11765 -1.84126 222 229 233
-6.01154 0.13500 -1.84052 225 232 236
-5.98328 0.11600 -1.84096 214 224 231
-6.00578 0.12086 -1.84062 219 228 235
-5.98941 0.11497 -1.84078 223 230 235
-6.00796 0.13887 -1.84058 220 227 232
-5.98551 0.11260 -1.84093 220 227 232
-6.01571 0.15574 -1.84053 216 225 231
-6.01434 0.14464 -1.84049 217 225 230
-5.99748 0.11408 -1.84082 211 223 232
-6.01079 0.14223 -1.84051 220 228 233
-5.98077 0.10824 -1.84112 213 223 231
-5.99143 0.11141 -1.84079 220 228 234
-5.98796 0.10893 -1.84105 219 228 234
-5.97751 0.10592 -1.84134 214 224 232
-6.01863 0.15361 -1.84032 218 226 231
-5.99837 0.14535 -1.84064 214 222 228
-6.01029 0.14290 -1.84059 218 226 232
-5.99713 0.13947 -1.84087 215 225 231
-5.99024 0.13481 -1.84087 214 224 231
-6.01350 0.14400 -1.84062 217 225 230
-6.01257 0.13937 -1.84022 217 227 233
-6.00897 0.13709 -1.84058 222 229 234
-6.01142 0.13342 -1.84069 225 231 235
-5.99483 0.12780 -1.84072 220 228 233
-5.97592 0.10980 -1.84127 215 225 232
-5.99131 0.10983 -1.84097 221 229 234
-6.00986 0.14166 -1.84039 218 226 231
-5.98762 0.10762 -1.84109 221 227 232
-5.97836 0.10656 -1.84122 213 224 232
-6.01586 0.14040 -1.84049 216 226 232
-5.98634 0.13108 -1.84093 214 224 231
-5.98072 0.10295 -1.84109 218 227 233
-5.99205 0.12973 -1.84082 222 230 235
-6.02178 0.13921 -1.84034 225 232 236
-5.98849 0.12732 -1.84083 218 227 233
-5.99775 0.12703 -1.84061 223 231 235
-6.02237 0.13440 -1.84022 220 228 234
-6.01645 0.16229 -1.84037 205 219 230
-6.02779 0.13795 -1.84044 224 231 235
-6.01521 0.12971 -1.84060 225 231 234
-5.99135 0.11376 -1.84090 226 232 236
-6.02423 0.13554 -1.84045 216 226 232
-5.97800 0.12038 -1.84120 219 228 233
-6.00513 0.14480 -1.84037 222 230 235
-6.00802 0.12496 -1.84039 221 228 234
-6.00704 0.14987 -1.84054 218 226 233
-6.02054 0.13333 -1.84058 221 228 233
-6.00397 0.12728 -1.84077 219 228 234
-6.00054 0.12510 -1.84051 222 229 234
-6.00633 0.12368 -1.84064 224 231 235
-6.01671 0.14104 -1.84036 214 224 231
-5.98504 0.10971 -1.84116 220 228 233
-5.98727 0.13165 -1.84105 211 223 231
-5.98677 0.10698 -1.84122 221 227 232
-5.99667 0.13251 -1.84081 218 226 233
-5.99289 0.13037 -1.84069 223 230 235
-6.03223 0.14087 -1.83995 220 227 232
-5.98943 0.12789 -1.84095 221 229 234
-5.98253 0.12323 -1.84095 217 226 231
-6.02508 0.13618 -1.84033 215 225 231
-5.97893 0.12095 -1.84131 216 225 231
-5.98322 0.10457 -1.84123 218 227 234
-6.00481 0.12792 -1.84064 220 228 234
-5.98149 0.10729 -1.84117 214 225 232
-6.00349 0.14745 -1.84055 219 227 232
-6.00531 0.15259 -1.84048 219 227 233
-5.97967 0.10216 -1.84125 219 227 232
-6.00649 0.14298 -1.84023 223 230 235
-6.01126 0.13584 -1.84056 224 231 235
-5.99322 0.12418 -1.84086 219 228 234
-6.00505 0.12180 -1.84057 220 228 235
-5.98277 0.11711 -1.84087 214 224 231
-5.98869 0.11592 -1.84073 223 230 234
-6.01296 0.14868 -1.84039 220 228 233
-5.98522 0.11343 -1.84098 217 226 232
-5.99114 0.11224 -1.84084 221 229 234
-5.98745 0.11004 -1.84096 220 228 234
-6.01822 0.16122 -1.84001 217 226 233
-6.00942 0.15783 -1.84048 209 221 229
-6.00167 0.14232 -1.84062 222 229 234
-6.02830 0.14478 -1.84015 222 230 235
-6.02007 0.14944 -1.84008 221 229 234
-6.00817 0.14038 -1.84064 218 226 232
-6.01053 0.13678 -1.84051 224 230 235
-6.00574 0.12849 -1.84076 219 228 234
-6.00108 0.14712 -1.84075 222 228 232
-6.02129 0.14917 -1.84014 219 228 234
-5.99125 0.13303 -1.84088 212 223 231
-6.00456 0.12248 -1.84065 221 228 234
-5.99959 0.14373 -1.84061 213 223 229
-5.98806 0.11679 -1.84091 222 229 233
-5.99604 0.14132 -1.84063 218 226 233
-6.02077 0.14234 -1.84043 224 231 235
-6.02261 0.15498 -1.84015 217 226 233
-6.02678 0.14902 -1.84016 223 228 232
-5.98450 0.11438 -1.84093 215 225 233
-6.01379 0.13775 -1.84019 219 228 233
-6.00953 0.13856 -1.84051 220 228 233
-6.01032 0.13527 -1.84045 222 230 235
-6.01606 0.13035 -1.84048 223 228 231
-6.00567 0.14012 -1.84059 222 229 234
-6.01528 0.14114 -1.84033 217 226 232
-6.01502 0.13570 -1.84033 224 230 235
-6.01734 0.13223 -1.84055 225 230 233
-6.01001 0.12768 -1.84045 222 230 234
-6.01610 0.13428 -1.84041 221 227 232
-5.99474 0.11994 -1.84085 219 228 234
-5.97824 0.11426 -1.84112 215 225 232
-6.01472 0.13832 -1.84031 220 228 234
-5.97774 0.11493 -1.84120 215 225 232
-5.97714 0.10818 -1.84125 219 227 234
-6.01877 0.12806 -1.84030 224 230 234
-5.99042 0.11319 -1.84078 222 230 235
-5.97642 0.10912 -1.84119 218 227 233
-5.98069 0.11059 -1.84123 212 220 226
-6.01500 0.12820 -1.84054 222 230 234
-6.00072 0.13425 -1.84072 222 229 234
-6.00441 0.13646 -1.84059 220 228 233
-5.99849 0.13765 -1.84074 220 228 233
-6.01846 0.14581 -1.84021 220 228 234
-6.01254 0.14700 -1.84036 222 229 233
-6.01609 0.14941 -1.84034 221 229 233
-6.02192 0.14829 -1.83996 222 230 235
-5.98696 0.11071 -1.84104 220 228 233
-6.02556 0.15064 -1.84018 223 229 233
-6.02106 0.14015 -1.84029 225 231 236
-5.99167 0.13064 -1.84063 217 226 233
-6.02720 0.13869 -1.84028 224 231 235
-6.01395 0.13533 -1.84032 222 229 234
-6.02400 0.14688 -1.83997 219 227 234
-5.99464 0.13786 -1.84073 213 223 231
-5.97950 0.10457 -1.84112 218 227 233
-6.02351 0.13648 -1.84040 219 228 233
-5.99108 0.13544 -1.84075 218 226 232
-6.03298 0.13771 -1.84024 223 230 234
-6.02943 0.13529 -1.84026 224 230 235
-5.99990 0.12598 -1.84070 224 230 234
-6.02588 0.13288 -1.84027 224 231 235
-6.00894 0.14472 -1.84072 220 229 234
-6.00582 0.12479 -1.84055 223 230 234
-6.01692 0.14255 -1.84043 216 225 232
-5.98556 0.11653 -1.84087 218 227 233
-5.97878 0.10552 -1.84106 218 228 234
-5.98209 0.11405 -1.84113 215 225 232
-6.00819 0.12119 -1.84042 220 228 234
-5.99635 0.12357 -1.84071 221 228 234
-5.99988 0.12955 -1.84056 227 232 235
-5.98702 0.12621 -1.84105 217 227 233
-5.99640 0.12750 -1.84065 222 230 235
-5.99272 0.12486 -1.84094 218 227 233
-5.98446 0.11045 -1.84100 219 227 232
-6.00937 0.12720 -1.84054 219 228 234
-5.99855 0.12374 -1.84055 223 231 235
-5.98528 0.13029 -1.84109 218 227 233
-5.99393 0.11167 -1.84084 222 230 236
-5.99033 0.10939 -1.84120 221 228 233
-5.98095 0.11197 -1.84095 213 219 224
-6.01034 0.14683 -1.84052 219 227 232
-6.00901 0.14102 -1.84052 217 226 232
-6.02475 0.14236 -1.84017 216 225 233
-6.00936 0.14233 -1.84047 218 226 231
-6.02252 0.14576 -1.84019 224 230 235
-6.01818 0.13287 -1.84042 223 230 234
-6.02055 0.12926 -1.84029 223 231 236
-5.98589 0.11034 -1.84103 221 228 234
-5.98233 0.10793 -1.84105 214 224 232
-5.98753 0.13303 -1.84076 211 222 231
-5.97859 0.11557 -1.84107 215 225 232
-6.01383 0.13375 -1.84050 223 230 234
-5.98214 0.11798 -1.84106 216 225 232
-6.01730 0.13623 -1.84024 220 227 233
-5.99281 0.13272 -1.84081 209 222 231
-6.00977 0.15914 -1.84044 213 224 231
-5.98294 0.11469 -1.84100 214 224 232
-6.00938 0.15390 -1.84055 213 223 230
-5.99873 0.13153 -1.84066 215 224 231
-6.01391 0.15674 -1.84030 217 226 232
-5.98580 0.12783 -1.84108 219 228 234
-6.01622 0.15328 -1.84052 222 229 233
-6.01490 0.14746 -1.84051 217 226 232
-5.98170 0.10881 -1.84124 212 223 231
-5.98406 0.10521 -1.84111 220 228 234
-6.01086 0.13059 -1.84067 222 229 235
-5.99498 0.13917 -1.84069 217 226 231
-6.00442 0.14802 -1.84067 221 229 234
-6.02601 0.13674 -1.84045 218 226 232
-6.01532 0.14507 -1.84026 213 224 230
-6.02235 0.14954 -1.84015 221 229 234
-6.02336 0.15047 -1.84035 219 227 232
-6.01972 0.14812 -1.84012 221 229 234
-6.00679 0.14442 -1.84054 222 230 235
-6.01082 0.16129 -1.84038 219 227 233
-6.00323 0.14201 -1.84055 222 229 234
-6.01940 0.13125 -1.84040 221 229 234
-6.01585 0.12883 -1.84041 223 230 234
-6.01239 0.13564 -1.84039 223 230 234
-6.00972 0.15521 -1.84050 218 226 231
-6.01839 0.13438 -1.84049 224 230 234
-5.99954 0.13980 -1.84068 217 226 232
-6.00603 0.15300 -1.84063 216 225 231
-6.00269 0.15075 -1.84061 216 225 231
-5.98887 0.12506 -1.84093 222 230 235
-6.01442 0.13300 -1.84066 221 228 233
-6.02431 0.13319 -1.84034 225 232 236
-6.01484 0.13197 -1.84050 217 224 228
-5.98482 0.12333 -1.84103 211 223 231
-5.98134 0.12128 -1.84112 212 223 231
-6.00959 0.12465 -1.84032 217 226 233
-5.98726 0.12009 -1.84097 211 222 230
-5.98362 0.11774 -1.84075 212 223 230
-6.00070 0.12268 -1.84064 220 229 234
-5.99715 0.12027 -1.84066 224 231 235
-5.98053 0.11436 -1.84120 219 227 232
-6.00110 0.12793 -1.84053 223 230 235
-6.00316 0.11901 -1.84075 216 226 232
-5.98881 0.10957 -1.84092 217 226 233
-5.99888 0.11755 -1.84071 215 225 232
-6.02217 0.14445 -1.84023 220 229 234
-6.00191 0.13620 -1.84055 220 228 233
-6.03008 0.14598 -1.84014 224 230 234
-5.98802 0.12443 -1.84106 224 231 236
-6.01196 0.16337 -1.84056 211 222 229
-6.01179 0.15423 -1.84035 218 227 232
-5.98507 0.12877 -1.84102 218 227 233
-6.00978 0.14536 -1.84060 219 228 233
-6.00289 0.14070 -1.84060 220 228 234
-5.99933 0.13829 -1.84061 221 229 233
-6.01717 0.13465 -1.84042 219 226 232
-5.98044 0.10514 -1.84123 217 227 234
-6.00304 0.15206 -1.84057 221 229 233
-5.99692 0.13796 -1.84081 212 223 230
-6.01467 0.13439 -1.84037 223 230 234
-6.01107 0.13211 -1.84074 225 231 235
-5.98169 0.12259 -1.84107 218 226 232
-5.99686 0.12246 -1.84080 224 230 235
-5.97694 0.11823 -1.84126 218 226 232
-6.01457 0.15365 -1.84035 219 227 233
-5.97681 0.11436 -1.84108 212 223 231
-6.01226 0.13406 -1.84057 225 231 235
-5.97899 0.10703 -1.84113 212 224 232
-5.97707 0.11981 -1.84108 219 227 233
-6.02898 0.13990 -1.84027 225 232 236
-6.00341 0.12446 -1.84075 224 230 234
-5.99363 0.14099 -1.84082 219 227 233
-6.01508 0.15119 -1.84034 218 227 233
-6.01894 0.15892 -1.83997 217 226 231
-6.01534 0.15664 -1.84034 220 228 234
-5.99712 0.12791 -1.84080 223 231 236
-5.99599 0.13739 -1.84069 213 223 231
-6.00546 0.13861 -1.84053 223 229 233
-5.99295 0.13658 -1.84098 214 224 230
-6.01023 0.13147 -1.84086 224 231 235
-5.98096 0.12353 -1.84102 212 223 230
-6.01961 0.13276 -1.84046 222 228 233
-5.99969 0.12446 -1.84064 220 228 233
-5.98254 0.10945 -1.84111 212 222 230
-6.00168 0.12718 -1.84069 220 228 233
-5.97914 0.12246 -1.84138 217 226 232
-6.01251 0.12794 -1.84049 218 227 233
-5.99593 0.12189 -1.84068 221 228 233
-6.01469 0.14595 -1.84045 216 225 230
-6.01957 0.15417 -1.84044 221 229 234
-6.01001 0.15302 -1.84036 216 224 230
-5.97597 0.11373 -1.84121 213 223 231
-6.01356 0.15543 -1.84034 218 226 232
-6.00194 0.12063 -1.84078 223 230 235
-6.01280 0.12938 -1.84080 219 227 233
-6.00359 0.12819 -1.84058 221 229 234
-6.00694 0.13044 -1.84059 219 228 234
-5.98188 0.11254 -1.84106 217 224 230
-5.98780 0.11135 -1.84092 220 228 234
-5.98420 0.10907 -1.84128 215 224 231
-5.98065 0.10666 -1.84130 214 225 232
-6.00849 0.15726 -1.84036 210 221 228
-5.99557 0.13842 -1.84085 215 224 231
-6.01311 0.13469 -1.84044 223 230 234
-6.01534 0.13129 -1.84042 211 217 221
-5.99897 0.12541 -1.84058 221 228 233
-6.02503 0.13224 -1.84040 226 232 236
-5.97524 0.11467 -1.84115 216 226 232
-6.01514 0.13728 -1.84015 223 230 235
-6.00142 0.12174 -1.84069 220 228 234
-5.99394 0.12324 -1.84091 216 225 232
-5.99977 0.12211 -1.84052 222 230 235
-5.99787 0.11933 -1.84071 223 230 234
-5.98116 0.11348 -1.84101 218 226 232
-5.98348 0.11001 -1.84123 215 224 230
-5.99867 0.11603 -1.84065 214 224 231
-5.98765 0.12668 -1.84096 219 228 234
-5.99299 0.11110 -1.84072 221 229 235
-6.00498 0.12415 -1.84068 224 230 235
-5.99551 0.12293 -1.84084 216 225 232
-6.00844 0.12663 -1.84042 221 229 234
-6.01779 0.12762 -1.84053 224 230 234
-6.00261 0.12775 -1.84081 221 229 234
-6.02126 0.15545 -1.84019 216 225 232
-6.01779 0.15297 -1.84045 217 225 231
-5.99357 0.12549 -1.84081 218 227 233
-6.00700 0.14593 -1.84060 222 230 235
-6.01291 0.14474 -1.84046 214 221 226
-5.99674 0.12881 -1.84060 223 231 236
-6.01680 0.13690 -1.84032 221 229 235
-6.01553 0.14659 -1.84032 221 228 233
-5.98931 0.13424 -1.84075 219 227 232
-5.99878 0.13546 -1.84059 217 226 232
-6.01159 0.13893 -1.84045 220 228 234
-5.99531 0.13298 -1.84085 218 227 233
-6.00812 0.13645 -1.84071 222 230 234
-6.00478 0.13420 -1.84069 221 229 234
-5.98592 0.12941 -1.84090 226 232 236
-5.98807 0.12836 -1.84099 217 226 232
-6.01154 0.16035 -1.84043 216 226 232
-5.99942 0.14750 -1.84058 219 226 231
-6.01836 0.14995 -1.84025 219 229 235
-5.99248 0.13891 -1.84064 217 226 232
-6.01135 0.14505 -1.84053 220 228 232
-5.99854 0.14158 -1.84067 213 223 231
-6.01726 0.14386 -1.84038 211 222 229
-5.99129 0.13696 -1.84081 218 227 232
-6.01371 0.14145 -1.84040 215 225 231
-6.01016 0.13904 -1.84041 218 227 232
-5.99019 0.13087 -1.84094 214 224 231
-6.01608 0.13785 -1.84027 222 229 234
-5.99958 0.13217 -1.84054 215 223 229
-6.00892 0.13316 -1.84065 223 231 235
-5.99602 0.12975 -1.84055 224 231 235
-5.99247 0.12734 -1.84057 219 227 233
-5.99123 0.12146 -1.84080 215 225 231
-6.02079 0.15391 -1.84051 217 227 233
-5.99004 0.11545 -1.84069 223 230 235
-5.98644 0.11317 -1.84105 223 230 234
-6.00195 0.14013 -1.84048 224 230 235
-6.01743 0.14009 -1.84042 218 227 232
-6.01264 0.13180 -1.84067 221 229 234
-6.01136 0.12585 -1.84031 219 228 234
-6.01714 0.15157 -1.84028 219 227 232
-6.01380 0.14931 -1.84027 219 227 232
-6.00087 0.14561 -1.84068 222 228 232
-5.99732 0.14320 -1.84070 216 225 232
-6.02573 0.14686 -1.84022 223 230 235
-6.01281 0.16401 -1.84043 215 223 229
-6.01257 0.14343 -1.84050 220 227 232
-5.98889 0.13256 -1.84072 213 224 231
-6.01862 0.14204 -1.84025 220 228 232
-6.01138 0.13742 -1.84039 222 229 234
-6.00791 0.13494 -1.84064 220 228 233
-5.99480 0.13137 -1.84058 219 228 234
-6.00436 0.13253 -1.84066 216 226 233
-5.99125 0.12896 -1.84059 219 228 234
-6.01517 0.16041 -1.84030 221 228 233
-6.00123 0.13179 -1.84071 226 232 236
-5.98452 0.12595 -1.84100 219 227 233
-6.00807 0.15559 -1.84033 214 223 230
-6.00481 0.15327 -1.84056 220 228 233
-6.00081 0.13012 -1.84067 226 233 237
-5.99022 0.12324 -1.84080 220 228 234
-5.98890 0.11743 -1.84079 224 231 235
-5.99994 0.14504 -1.84057 222 228 233
-5.99747 0.12922 -1.84075 222 231 236
-5.99638 0.14263 -1.84058 216 225 232
-5.99399 0.12717 -1.84084 223 230 234
-6.00585 0.14385 -1.84042 224 231 235
-6.03181 0.14326 -1.84020 223 230 235
-5.98661 0.10940 -1.84109 222 229 234
-5.97736 0.12125 -1.84138 218 227 232
-6.00230 0.14144 -1.84044 224 230 235
-6.01550 0.15422 -1.84046 221 229 233
-5.99043 0.12476 -1.84086 221 229 234
-5.98688 0.12234 -1.84088 212 224 232
-5.98333 0.11993 -1.84089 211 223 231
-6.02458 0.14614 -1.84013 222 229 235
-5.97618 0.11524 -1.84127 216 225 232
-6.01172 0.14280 -1.84063 221 229 234
-5.99515 0.13675 -1.84082 216 225 231
-5.98911 0.11894 -1.84085 216 226 233
-5.99159 0.13434 -1.84083 218 226 232
-5.98791 0.13213 -1.84095 217 226 233
-6.03080 0.14504 -1.84020 225 232 236
-6.01764 0.14161 -1.84048 219 227 232
-5.99417 0.13090 -1.84067 219 228 234
-5.99048 0.12869 -1.84079 222 229 234
-5.99156 0.11527 -1.84096 224 231 236
-5.97622 0.11917 -1.84120 220 228 233
-6.01952 0.15817 -1.84013 214 223 230
-6.02163 0.15455 -1.84038 216 226 232
-6.01808 0.15213 -1.84040 217 226 232
-6.00527 0.14866 -1.84054 218 227 233
-6.01474 0.14988 -1.84038 219 227 232
-5.99929 0.13435 -1.84068 219 227 232
-6.01231 0.13799 -1.84050 220 229 234
-6.00876 0.13558 -1.84052 221 229 234
-5.99574 0.13194 -1.84069 220 228 234
-6.00521 0.13316 -1.84053 218 227 233
-5.98154 0.11123 -1.84111 204 211 217
-6.02234 0.14204 -1.84036 227 233 237
-5.98050 0.12064 -1.84124 217 226 232
-6.02664 0.13587 -1.84026 217 225 231
-6.01348 0.13244 -1.84054 221 228 233
-6.02285 0.14886 -1.84007 218 227 233
-6.01826 0.15586 -1.84023 217 225 231
-6.00165 0.13075 -1.84055 224 231 236
-5.98524 0.12500 -1.84106 219 227 233
-5.99796 0.12854 -1.84067 225 232 236
-5.99441 0.12613 -1.84069 221 228 233
-5.99095 0.12365 -1.84094 219 228 234
-5.98760 0.12140 -1.84093 211 222 231
-5.98383 0.11926 -1.84081 215 225 231
-5.98983 0.11800 -1.84091 220 229 235
-5.98628 0.11559 -1.84092 218 226 232
-5.97789 0.10095 -1.84125 217 226 232
-5.97298 0.09901 -1.84131 223 229 234
-5.97560 0.10085 -1.84118 220 228 233
-5.97497 0.10173 -1.84136 221 228 233
-5.97420 0.09874 -1.84138 220 228 233
-5.97717 0.10190 -1.84120 218 227 232
-5.97438 0.10247 -1.84120 221 229 234
-5.97581 0.10236 -1.84124 222 229 234
-5.97340 0.10204 -1.84144 223 230 234
-5.97481 0.10414 -1.84124 224 231 236
-5.97696 0.10038 -1.84114 222 229 234
-5.97417 0.10502 -1.84142 219 228 235
-5.97679 0.10280 -1.84101 219 227 233
-5.97654 0.10142 -1.84129 221 228 233
-5.97324 0.10445 -1.84131 217 227 233
-5.97357 0.09826 -1.84147 220 228 233
-5.97598 0.09859 -1.84127 220 228 233
-5.97616 0.10368 -1.84120 221 229 235
-5.97633 0.09990 -1.84123 219 227 233
-5.97484 0.09787 -1.84119 219 227 232
-5.97532 0.10304 -1.84132 222 229 235
-5.97548 0.09927 -1.84135 220 228 233
-5.97754 0.09964 -1.84130 224 230 234
-5.97399 0.09723 -1.84131 218 226 232
-5.97404 0.10116 -1.84125 224 230 234
-5.97476 0.10021 -1.84130 223 230 234
-5.97392 0.09958 -1.84143 224 230 235
-5.97544 0.10462 -1.84114 221 229 235
-5.98375 0.17907 -1.84122 216 225 230
-5.97528 0.13374 -1.84102 211 222 231
-6.00584 0.15899 -1.84035 221 228 232
-6.00948 0.16926 -1.84021 216 225 232
-6.00402 0.16584 -1.84034 216 225 230
-6.00466 0.17267 -1.84088 218 226 231
-6.00661 0.16197 -1.84034 216 225 231
-6.00733 0.17438 -1.84040 216 225 232
-5.99320 0.16872 -1.84099 222 228 232
-5.98878 0.15048 -1.84060 219 226 232
-5.99458 0.14906 -1.84073 213 224 231
-5.99115 0.14688 -1.84047 219 227 233
-5.99702 0.14582 -1.84068 217 224 230
-5.99360 0.14320 -1.84058 222 229 234
-5.99031 0.18857 -1.84096 221 228 232
-5.98280 0.13617 -1.84074 208 221 230
-5.97920 0.13389 -1.84110 208 221 230
-5.98208 0.16788 -1.84098 219 227 232
-5.98512 0.13270 -1.84096 210 222 230
-5.97952 0.18153 -1.84112 223 229 233
-6.01299 0.16774 -1.84026 217 226 231
-5.98274 0.15550 -1.84130 221 228 233
-5.99322 0.18029 -1.84106 214 223 230
-5.98223 0.15254 -1.84094 216 225 231
-5.98967 0.17788 -1.84108 217 225 232
-5.99198 0.17441 -1.84130 217 227 233
-5.98264 0.16935 -1.84090 224 230 234
-6.00673 0.16762 -1.84045 214 224 230
-5.98479 0.16965 -1.84109 213 221 226
-6.00382 0.17203 -1.84101 221 228 233
-5.98757 0.19442 -1.84100 223 230 234
-5.99358 0.19317 -1.84109 223 229 233
-5.99874 0.17386 -1.84103 220 227 233
-5.97907 0.16079 -1.84122 217 226 232
-5.98358 0.15614 -1.84118 221 228 234
-5.98190 0.16280 -1.84105 216 224 230
-5.98667 0.18622 -1.84074 222 228 232
-5.98577 0.14339 -1.84085 222 229 234
-5.98222 0.14098 -1.84086 205 218 229
-5.98183 0.13167 -1.84069 213 223 231
-5.99521 0.15225 -1.84083 216 224 231
-5.98813 0.13979 -1.84072 217 226 231
-5.98080 0.15671 -1.84118 226 232 235
-5.99950 0.16121 -1.84066 216 225 231
-5.99157 0.14990 -1.84060 217 226 233
-6.00215 0.15678 -1.84048 216 226 232
-5.98309 0.19144 -1.84089 222 229 233
-5.98625 0.18861 -1.84099 224 231 235
-5.99011 0.15764 -1.84070 212 221 228
-5.98470 0.16044 -1.84112 218 226 232
-5.97642 0.13447 -1.84111 216 225 231
-5.99487 0.15050 -1.84104 223 230 235
-5.98125 0.14804 -1.84088 214 223 230
-5.98861 0.18501 -1.84086 222 229 233
-5.99462 0.18375 -1.84096 217 226 233
-5.98057 0.17440 -1.84134 218 224 227
-5.97943 0.15084 -1.84058 213 223 230
-5.98899 0.15199 -1.84067 214 224 230
-5.98563 0.17029 -1.84096 216 224 230
-5.98017 0.12683 -1.84108 206 220 230
-5.97720 0.12367 -1.84126 214 224 231
-5.98727 0.15835 -1.84106 218 226 232
-5.99968 0.17442 -1.84114 218 226 232
-6.00328 0.17670 -1.84078 218 227 232
-5.99150 0.19458 -1.84108 223 229 232
-5.98016 0.15759 -1.84137 227 232 235
-5.99184 0.18433 -1.84096 221 228 234
-5.97710 0.13888 -1.84095 208 220 229
-5.98214 0.17409 -1.84126 222 228 232
-5.98044 0.14384 -1.84115 214 225 232
-5.99552 0.16526 -1.84121 206 220 229
-5.99136 0.14839 -1.84054 218 227 233
-5.99736 0.14713 -1.84063 222 229 234
-5.99209 0.18977 -1.84096 222 229 232
-5.99372 0.14479 -1.84041 220 228 233
-5.97949 0.13170 -1.84096 216 225 232
-5.98301 0.13769 -1.84080 212 222 230
-5.98959 0.18951 -1.84091 223 229 233
-5.99460 0.17625 -1.84116 219 227 232
-5.98370 0.17514 -1.84129 219 226 232
-6.00528 0.15616 -1.84034 220 228 233
-6.00168 0.15388 -1.84070 224 230 235
-5.99834 0.15163 -1.84068 218 226 232
-5.98523 0.14807 -1.84062 211 222 230
-5.98005 0.13453 -1.84098 202 216 228
-6.00826 0.17494 -1.84052 220 228 234
-5.99197 0.16284 -1.84122 217 226 232
-5.98673 0.13633 -1.84082 218 226 232
-5.97801 0.12788 -1.84099 211 221 229
-6.00145 0.17157 -1.84085 219 227 232
-6.00285 0.17909 -1.84103 217 226 232
-5.98612 0.14470 -1.84080 218 227 233
-5.99930 0.17668 -1.84105 213 223 230
